93000.0,93270.0,93540.0,93810.0,94080.0,94350.0,94620.0,94890.0,95160.0,95430.0,95700.0,95970.0,96240.0,96510.0,96780.0,97050.0,97320.0,97590.0,97860.0,98130.0,98400.0,98670.0,98940.0,99210.0,99480.0,99750.0,100020.0,100290.0,100560.0,100830.0,101100.0,101370.0,101640.0,101910.0,102180.0,102450.0,102720.0,102990.0,103260.0,103530.0,103800.0,104070.0,104340.0,104610.0,104880.0,105150.0,105420.0,105690.0,105960.0,106230.0,106500.0,106770.0,107040.0,107310.0,107580.0,107850.0,108120.0,108390.0,108660.0,108930.0,109200.0,109470.0,109740.0,110010.0,110280.0,110550.0,110820.0,111090.0,111360.0,111630.0,111900.0,112170.0,112440.0,112710.0,112980.0,113250.0,113520.0,113790.0,114060.0,114330.0,114600.0,114870.0,115140.0,115410.0,115680.0,115950.0,116220.0,116490.0,116760.0,117030.0,117300.0,117570.0,117840.0,118110.0,118380.0,118650.0,118920.0,119190.0,119460.0,119730.0,120000.0
14.500135986276769,14.524134243263617,14.548132509826852,14.572130785898194,14.596129071409962,14.620127366295067,14.644125670487005,14.66812398391985,14.692122306528255,14.716120638247434,14.740118979013166,14.764117328761788,14.788115687430187,14.812114054955789,14.836112431276568,14.860110816331026,14.884109210058195,14.908107612397629,14.9321060232894,14.956104442674091,14.980102870492798,15.004101306687112,15.028099751199123,15.052098203971411,15.07609666494705,15.100095134069587,15.124093611283058,15.148092096531958,15.172090589761256,15.196089090916384,15.220087599943234,15.244086116788147,15.268084641397921,15.292083173719792,15.316081713701438,15.340080261290975,15.36407881643695,15.388077379088335,15.41207594919453,15.436074526705353,15.460073111571033,15.484071703742211,15.508070303169944,15.532068909805679,15.556067523601268,15.58006614450896,15.604064772481392,15.62806340747159,15.652062049432963,15.676060698319302,15.700059354084773,15.724058016683914,15.748056686071633,15.772055362203204,15.796054045034259,15.820052734520798,15.844051430619167,15.868050133286065,15.892048842478548,15.916047558154004,15.940046280270174,15.964045008785126,15.988043743657277,16.012042484845367,16.036041232308467,16.060039986005975,16.08403874589761,16.108037511943415,16.13203628410374,16.156035062339264,16.18003384661096,16.20403263688012,16.22803143310834,16.252030235257518,16.276029043289846,16.300027857167816,16.324026676854217,16.348025502312122,16.3720243335049,16.3960231703962,16.420022012949964,16.4440208611304,16.468019714902002,16.49201857422954,16.516017439078052,16.540016309412852,16.56401518519952,16.588014066403897,16.612012952992092,16.636011844930472,16.660010742185666,16.68400964472455,16.70800855251427,16.7320074655222,16.756006383715984,16.780005307063504,16.804004235532883,16.828003169092494,16.85200210771094,16.876001051357076,16.899999999999977
14.606612817234044,14.610811685509566,14.621536402234948,14.63642906719073,14.653997089901923,14.67328139459639,14.693681045818625,14.714802612268715,14.736406479788895,14.758328126657558,14.780474257506249,14.802772510475545,14.825188587345759,14.847686829290927,14.870256631186283,14.892876756226489,14.915546209888413,14.93824941936731,14.960989529189202,14.983753330069257,15.006546065687628,15.02935573514054,15.052188953037636,15.075034568163202,15.097900296435537,15.120775739242887,15.143669574589097,15.166572121916797,15.18949289872756,15.212422906342873,15.235372365841412,15.258332909023908,15.28131531061145,15.30431176862231,15.32733345430759,15.35037305994559,15.373441995685905,15.396533372323361,15.419658685358533,15.442811386743122,15.466002910651515,15.489226972286023,15.512494806407277,15.535800313730878,15.559154401404507,15.582551078967105,15.60600080891127,15.629497635248534,15.653051471335226,15.676656325401574,15.700321471304946,15.724040817491877,15.747822923722882,15.771661543324042,15.795564464747391,15.819525242019612,15.84355085390638,15.867634624470023,15.891782704340603,15.915988172449314,15.940256353316817,15.964580082448538,15.988963880567287,16.013400358883736,16.037893275842823,16.062435054503638,16.08702874972209,16.11166664813111,16.136351173879795,16.161074542108242,16.185838629571627,16.210635654947097,16.235467037072716,16.260325079800875,16.285210835370705,16.3101167777606,16.33504368211625,16.359984278678432,16.384939151556875,16.409901375593435,16.43487142983001,16.459842833023668,16.48481606068628,16.509785213960622,16.53475092872946,16.5597081440913,16.584658009862956,16.60959688335269,16.634527309410263,16.659448516527366,16.684366744853616,16.709287865157542,16.734227883964802,16.759209218723786,16.78427369144393,16.809486386429636,16.834957373667613,16.86086342761949,16.887495127561976,16.915323689520577,16.94511777965431
14.612239362549223,14.616455812888669,14.627638564401362,14.643266923963875,14.661732768925708,14.682009493825154,14.70344121277667,14.72560906093942,14.748245280507668,14.7711789772993,14.794300827955206,14.81754116667734,14.840855348044208,14.8642150340438,14.887602002743716,14.911004824559466,14.934416124648699,14.95783145393737,14.981247962687707,15.004664160486056,15.028079165727332,15.05149282183925,15.074905181556664,15.098316762844368,15.121728128910203,15.145140196375472,15.168553854517047,15.19197029076124,15.21539062632875,15.238816245374156,15.262248437972504,15.285688727729571,15.309138518733464,15.33259941980002,15.356072894448475,15.379560581209947,15.403063946830295,15.426584602502805,15.450123961131084,15.473683549437984,15.49726467053173,15.520868711772193,15.544496814175261,15.568150175745421,15.591829729455831,15.615536441502016,15.63927099971705,15.663034105876596,15.686826176458997,15.710647627752882,15.734498590866776,15.75837918798014,15.782289263468737,15.806228649226137,15.830196913725326,15.854193613948892,15.87821806417904,15.902269571736047,15.92634722729744,15.95045012137458,15.974577158019327,15.998727248777465,16.022899151751268,16.047091639657054,16.071303366369772,16.095533005673733,16.11977914760964,16.144040404530767,16.168315339789004,16.192602537780388,16.216900567730733,16.241208014524613,16.265523480576615,16.289845574389428,16.314172953737,16.3385042691255,16.36283825183315,16.38717360986667,16.411509164987848,16.435843699683968,16.46017614867169,16.48450539766955,16.508830538345336,16.533150625486417,16.557465013463883,16.58177309349798,16.60607475369047,16.63037015760913,16.654660433126445,16.678947657389596,16.703236046379196,16.727532584947664,16.751849429458947,16.776206344624374,16.800636198358948,16.82519228386411,16.849961886548325,16.875086670276932,16.900797572355284,16.927470079623497,16.95571595287396
14.603044835016023,14.607495477105347,14.619302013766418,14.635827515861084,14.655385811167742,14.676897441795989,14.69967071258506,14.723261947612041,14.747386162128171,14.77185990271767,14.796564669151588,14.82142349712775,14.84638598270911,14.87141869905965,14.896499081173422,14.921611515374714,14.94674485528781,14.971890833704391,14.997043063101263,15.02219639488854,15.047346523845722,15.072489731126138,15.097622731885318,15.122742571503592,15.14784656906616,15.172932272951872,15.197997440395339,15.223040014692362,15.248058117034676,15.273050030626054,15.298014195754874,15.322949195570978,15.34785375140848,15.37272670881208,15.397567032542788,15.42237379293077,15.447146160885927,15.471883395141123,15.496584837819986,15.521249903187568,15.54587807427279,15.570468893612086,15.595021961252673,15.619536927775235,15.644013493798823,15.668451405360349,15.692850454845646,15.717210478618064,15.741531359136038,15.765813024576804,15.790055451780072,15.814258667512672,15.838422751803835,15.862547840442836,15.886634128242122,15.910681872348658,15.934691394981074,15.958663087159946,15.982597410506811,16.006494901050722,16.03035616974216,16.054181906064592,16.077972876996668,16.10172993024021,16.12545399145217,16.149146066987576,16.1728072393123,16.196438669246007,16.220041589553787,16.24361730675715,16.26716719298707,16.29069268751348,16.314195287031108,16.33767654715451,16.361138071427526,16.384581513185346,16.408008563801815,16.431420955653465,16.454820450643926,16.47820884584086,16.50158796467247,16.52495966901075,16.548325859034033,16.57168850140847,16.595049653431822,16.618411532705203,16.641776606948582,16.66514777275669,16.688528621624545,16.711923908682664,16.735340291250232,16.758787573104104,16.78228071184105,16.805843144870003,16.82951220984305,16.853348073426456,16.87744835144739,16.901972154730256,16.927179569040618,16.953496617314325,16.98162218000607
14.634502346016646,14.638843351000391,14.650142173119765,14.665890374703622,14.684485902086754,14.704904707591663,14.726491907809136,14.748828600761643,14.771646794898839,14.794775021071906,14.818103546848201,14.841562125902529,14.86510576736895,14.888705636673459,14.91234323968659,14.936006706761733,14.959688419493423,14.983383495301727,15.00708881990611,15.030802429223757,15.05452311407451,15.078250166613385,15.101983216936022,15.125722126829775,15.149466919801668,15.173217733992855,15.196974789626722,15.220738365603637,15.244508781977318,15.268286386169791,15.292071541717009,15.315864618699472,15.339665985474165,15.363476001362791,15.387295010238425,15.411123334839436,15.434961271880153,15.458809087826257,15.482667015455894,15.506535251057748,15.530413952412799,15.554303237371023,15.578203183190167,15.602113826398117,15.626035163369677,15.64996715132541,15.673909709973637,15.69786272344796,15.721826042799252,15.745799488639014,15.76978285423879,15.793775908627126,15.817778400042501,15.841790059228291,15.865810602989328,15.889839737440829,15.913877161437094,15.9379225695551,15.961975655194323,15.986036113111489,16.010103642030707,16.03417794658989,16.058258739347526,16.082345742050784,16.10643868697627,16.130537317481956,16.154641388671827,16.1787506672464,16.20286493153376,16.22698397070639,16.251107584275463,16.27523558079988,16.29936777700648,16.323503996197847,16.34764406726855,16.371787823172102,16.39593510033608,16.42008573791332,16.444239578682087,16.46839647075079,16.49255627256564,16.516718861244865,16.540884148411035,16.565052106021916,16.58922281067946,16.61339651569413,16.637573770723478,16.66175561652375,16.68594390474513,16.710141819249014,16.734354729135937,16.75859158088414,16.782867174089738,16.807205878370763,16.83164770888184,16.856258255214122,16.88114491544683,16.906483443425056,16.932561382712354,16.959849166681785,16.989116612652197
14.648582339733652,14.652820889736626,14.664040678952555,14.679703337464144,14.698191235020337,14.718472818758919,14.739890158210438,14.762023710601992,14.784606103710928,14.807467121567793,14.830498585744797,14.853631934225135,14.876823907420878,14.900047411158614,14.923285685112674,14.946528581344577,14.969770189320561,14.993007319863395,15.016238536659184,15.039463536716465,15.062682752974476,15.085897098329665,15.109107799533929,15.13231628826025,15.155524128432447,15.178732966653135,15.201944497283655,15.225160436942692,15.248382505029426,15.27161240824745,15.29485182777508,15.31810240834719,15.341365748708933,15.364643393214942,15.38793682435122,15.41124745614447,15.43457662835112,15.457925601453814,15.481295552391202,15.504687571061321,15.528102657526292,15.551541719952464,15.57500557320497,15.598494938119371,15.622010441358738,15.645552615867919,15.669121901824763,15.692718648091963,15.716343114064163,15.739995471909795,15.763675809100917,15.787384131230258,15.811120365010812,15.83488436146058,15.858675899172733,15.882494687680046,15.90634037082108,15.93021253012512,15.954110688132028,15.978034311673415,16.00198281504042,16.02595556307441,16.049951874114914,16.073971022850664,16.098012243016626,16.122074729991642,16.14615764324727,16.170260108710544,16.194381220998373,16.21852004559444,16.242675620934307,16.26684696048026,16.29103305476481,16.315232873504396,16.339445367791846,16.363669472516882,16.387904109098578,16.412148188802345,16.436400616923855,16.460660298436235,16.484926145907696,16.509197091139452,16.53347210271626,16.557750213170134,16.58203056160398,16.606312461413182,16.630595508597835,16.654879755981607,16.67916599431834,16.703456207057545,16.727754307199756,16.75206733280838,16.776407388418768,16.800794800270317,16.82526324763203,16.849868113155374,16.87470007998097,16.899907286927007,16.925731454926947,16.952566847714657,16.981056609177813
14.637375192060135,14.641776870638584,14.65342167556981,14.669699628022165,14.688943899444407,14.710088988466984,14.732453357356295,14.755600835908947,14.779252110027143,14.803228148446154,14.827414030091665,14.851735814210333,14.876145752532269,14.90061283733545,14.925116762123425,14.949644064266424,14.974185662243551,14.99873528385393,15.023288463371461,15.04784190181757,15.072393058867577,15.096939892435023,15.121480692366283,15.146013974083415,15.170538410413327,15.195052787746327,15.219555977717187,15.24404691881167,15.268524604353285,15.292988074621414,15.317436411682928,15.341868736037657,15.366284204512931,15.39068200904523,15.415061376120827,15.439421566723128,15.463761876687258,15.488081637387824,15.512380216706541,15.536657020232482,15.560911492656087,15.58514311931751,15.609351427873968,15.633535990048467,15.657696423425334,15.68183239325589,15.705943614240871,15.730029852254871,15.754090925981856,15.778126708430596,15.802137128302949,15.82612217118869,15.850081880565014,15.874016358580315,15.897925766606326,15.921810325544753,15.945670315878846,15.969506077462864,15.993318009046064,16.01710656753089,16.04087226696797,16.064615677293517,16.088337422817403,16.11203818047264,16.135718677839346,16.15937969095854,16.18302204195286,16.20664659647366,16.23025426099559,16.253845979982543,16.277422732951432,16.30098553146521,16.324535416092157,16.348073453380145,16.37160073290953,16.39511836451753,16.418627475828952,16.442129210303104,16.465624726122012,16.489115196441706,16.51260181183983,16.536085786311883,16.559568369004914,16.58305086525479,16.606534672731797,16.63002134216909,16.653512678136703,16.677010905129976,16.70051894027598,16.724040840226436,16.747582532814125,16.771153014548997,16.794766310613177,16.81844468365778,16.84222388900947,16.86616178530294,16.89035245033664,16.914949335732217,16.940203274642457,16.96652492330098,16.994587456520378
14.666465046559065,14.670858448876233,14.682289408218661,14.698218480294306,14.717024633995878,14.737672281263505,14.759499587012137,14.782083520741072,14.805153692287464,14.82853728768944,14.852123865031333,14.8758428444535,14.89964911576635,14.923513837829285,14.94741855824151,14.97135145610078,14.995304941934856,15.01927412493697,15.043255834267981,15.067247994197574,15.091249225143143,15.115258588888057,15.139275425807726,15.16329925081111,15.187329686763224,15.211366421852215,15.235409182275792,15.259457714754245,15.28351177537276,15.307571122526854,15.331635512552694,15.355704697137984,15.379778421934178,15.403856425997416,15.42793844181539,15.452024195759188,15.476113408850916,15.50020579776937,15.524301076036819,15.548398955341572,15.572499146959832,15.596601363244394,15.620705319152211,15.644810733784253,15.668917331914272,15.6930248454837,15.717133015042906,15.741241591119552,15.765350335498015,15.789459022394343,15.813567439514749,15.83767538898617,15.861782688151104,15.885889170219402,15.909994684773467,15.934099098123644,15.958202293514141,15.982304171180187,16.006404648260204,16.030503658567174,16.05460115222583,16.078697095182818,16.10279146859876,16.12688426813157,16.15097550312189,16.175065195691747,16.19915337976882,16.223240100049235,16.24732541091331,16.27140937530975,16.295492063627258,16.31957355257552,16.343653924105734,16.36773326441081,16.391811663065383,16.415889212395328,16.439966007217972,16.464042145176062,16.48811772802445,16.512192864449265,16.536267675361366,16.560342303195966,16.584416927716525,16.608491792396823,16.632567248033176,16.656643824448903,16.680722348037317,16.70480413414148,16.7288913016692,16.7529872874325,16.777097686924044,16.801231628777956,16.825404021962758,16.849639230510363,16.87397708390216,16.898482710070912,16.923262626868706,16.94849108474972,16.97445321130548,17.001615719366214,17.03074289541405
14.699211954047358,14.703494757694958,14.714793775516753,14.730558669390199,14.749164942035986,14.769577160284163,14.791135250044348,14.813418523527007,14.836159027164918,14.859186271372794,14.882391961331093,14.905707487180404,14.929089557662182,14.952511031972943,14.975955069686572,14.999411398305762,15.022873932004526,15.046339252294425,15.069805638359115,15.093272447831163,15.116739720943867,15.140207927042427,15.163677801821498,15.187150242394383,15.210626239247032,15.234106831742487,15.25759307869211,15.28108603859695,15.30458675612787,15.328096252662368,15.351615519490052,15.375145512802824,15.398687149905626,15.422241306286079,15.44580881330944,15.469390456386488,15.492986973512636,15.5165990541093,15.540227338118338,15.563872415313938,15.587534824803917,15.61121505469858,15.634913541928237,15.658630672193828,15.682366780036556,15.706122149014528,15.729897011975634,15.753691551417345,15.777505899925483,15.801340140684966,15.825194308057183,15.849068388219207,15.872962319861736,15.896875994942958,15.920809259497148,15.944761914496874,15.968733716769046,15.992724379964931,16.016733575585423,16.04076093406241,16.064806045898116,16.08886846286356,16.112947699258143,16.13704323323152,16.161154508169627,16.1852809341458,16.209421889438904,16.23357672211952,16.25774475170676,16.2819252708986,16.306117547381383,16.330320825727334,16.354534329396138,16.37875726286669,16.402988813944006,16.42722815631516,16.451474452477207,16.475726857238424,16.499984522123505,16.52424660122182,16.54851225935924,16.572780684026615,16.597051103399803,16.621322814250703,16.645595225934578,16.669867930521537,16.694140815463623,16.718414245490234,16.742689357211496,16.766968537275176,16.791256199551405,16.815560049627422,16.83989314372751,16.8642772432114,16.888748282813424,16.91336528901981,16.938224932845312,16.963485289877454,16.989404657998985,17.016405026665154,17.04517596412785
14.70733358247638,14.711708148796555,14.723260014620008,14.73939127133979,14.758445693789193,14.77936652050523,14.801479171421498,14.824352918331012,14.847712680452384,14.871382733605317,14.895250772064033,14.919244962065223,14.94331929180419,14.967444220221394,14.991600709758668,15.015776419791775,15.039963279282428,15.06415593954194,15.08835078842138,15.112545322512007,15.136737747563505,15.160926724335196,15.185111207099508,15.20929034115838,15.233463397942222,15.257629734041997,15.281788765484679,15.30593995171948,15.330082785793488,15.354216788473684,15.37834150488674,15.4024565027641,15.42656137170949,15.450655723113599,15.474739190474402,15.49881142996463,15.522872121142738,15.546920967736709,15.570957698453137,15.59498206777722,15.618993856739563,15.64299287363111,15.666978954652858,15.69095196448918,15.714911796797038,15.738858374604394,15.762791650613648,15.786711607406613,15.810618257549502,15.834511643597084,15.858391837996601,15.882258942892797,15.906113089836493,15.929954439399769,15.953783180701656,15.977599530848767,16.001403734295856,16.02519606213162,16.048976811295457,16.07274630373108,16.096504885482954,16.120252925741717,16.143990815844614,16.167718968236976,16.191437815400757,16.215147808756093,16.238849417541804,16.262543127681234,16.286229440640152,16.309908872284794,16.333581951749995,16.357249220331244,16.38091123042025,16.40456854451434,16.428221734346184,16.45187138020862,16.475518070594045,16.499162402341835,16.522804981607315,16.546446426162184,16.57008736985556,16.59372847058693,16.61737042399241,16.64101398643538,16.664660013159576,16.688309521168573,16.71196379245083,16.735624543072596,16.759294199861735,16.782976352922915,16.806676495648983,16.830403235037966,16.854170271746277,16.87799964057611,16.90192701597392,16.926010402552947,16.950344377764534,16.97508344751868,17.00048037171452,17.026949107455813,17.05516829526391
14.732528128791381,14.736934873957518,14.748409112565811,14.764395477256976,14.783264596155524,14.803976712309689,14.825868059141195,14.848514828980646,14.871646413732071,14.895090022383231,14.918735313100282,14.942511804120707,14.96637444730731,14.990294416517148,15.014253227368451,15.038238984857617,15.062243989754636,15.086263212417657,15.110293320175032,15.134332057863979,15.158377853595942,15.182429568113413,15.206486335664088,15.230547463185498,15.254612366632413,15.27868053095687,15.302751485146464,15.326824786845403,15.350900013070968,15.374976754802624,15.399054614027598,15.423133202338269,15.447212140504194,15.471291058647633,15.495369596785213,15.519447405580681,15.543524147209332,15.5675994962669,15.591673140680342,15.615744782589191,15.639814139179235,15.66388094345236,15.687944944925372,15.71200591024854,15.736063623742401,15.760117887847045,15.78416852348593,15.808215370340466,15.832258287039913,15.856297151264053,15.880331859765189,15.904362328307654,15.928388491533017,15.952410302749506,15.97642773365514,16.0004407739931,16.02444943114991,16.048453729694625,16.072453710870278,16.096449432035538,16.120440966068085,16.144428400727087,16.16841183798671,16.19239139333731,16.216367195066468,16.240339383516144,16.264308110328543,16.288273537677117,16.312235837496626,16.33619519071071,16.360151786474507,16.384105821437366,16.408057499053776,16.432007028965625,16.455954626513197,16.479900512446513,16.50384491297317,16.527788060343852,16.551730194322104,16.57567156508458,16.599612438460415,16.623553104975322,16.647493895110028,16.67143520469253,16.69537753684417,16.719321570957415,16.743268275851225,16.767219095131303,16.791176250619362,16.815143238891785,16.83912564377112,16.863132465899653,16.887178298825628,16.91128689132915,16.935496980594426,16.959871846673767,16.984514967708968,17.009595682066234,17.035391275833586,17.062356056750186,17.0912348282439
14.770870917606915,14.775203735211855,14.786571644879109,14.802418249165344,14.821116045568738,14.84162818940755,14.863293984464661,14.885692476514032,14.9085555747663,14.931712669185906,14.955055310182496,14.978514679664556,15.002047221382922,15.025625476724564,15.049232241375528,15.072856840249223,15.096492753279584,15.12013610245965,15.143784687808356,15.16743737310021,15.191093694389753,15.21475361041434,15.23841734332581,15.262085276920688,15.2857578914685,15.309435721835902,15.333119330444092,15.356809289676312,15.38050617031323,15.404210533819683,15.427922927100221,15.451643878843694,15.475373896898457,15.49911346632241,15.522863047882124,15.546623076856784,15.570393962055643,15.594176084990238,15.617969799164388,15.641775429458166,15.66559327159092,15.689423591653997,15.713266625707393,15.737122579437079,15.76099162787122,15.784873915154598,15.808769554381346,15.832678627486379,15.85660118519648,15.880537247041895,15.904486801429712,15.928449805779904,15.952426186725408,15.976415840376912,16.00041863265345,16.024434399679304,16.048462948247682,16.07250405635148,16.096557473780855,16.120622922787508,16.14470009881482,16.168788671293036,16.192888284498284,16.216998558473936,16.241119090012734,16.26524945369795,16.289389203001928,16.31353787144075,16.337694973784348,16.361860007322978,16.386032453193184,16.41021177777073,16.434397434144465,16.45858886369694,16.482785497835348,16.506986759947154,16.531192067703383,16.555400835912902,16.57961248026112,16.603826422478765,16.628042097832395,16.652258966391248,16.676476530443686,16.700694361933532,16.72491214622853,16.749129752516907,16.77334734763007,16.797565580702848,16.821785883416734,16.846010958886342,16.870245578522045,16.894497881844124,16.918781497930176,16.943119009569,16.967547612488183,16.992128364630954,17.01696130984194,17.042210219573313,17.068143093920703,17.095198511274535,17.124094437327585
14.79722939831335,14.801603748718344,14.813124326691854,14.82919682614144,14.848169686176474,14.86899067438582,14.89098913663959,14.913737557171032,14.936963403447264,14.960492942891872,14.98421542161702,15.008060223055255,15.03198230434043,15.055952912407534,15.07995366739824,15.103972793273925,15.128002717264367,15.15203854167181,15.176077071434712,15.200116195627041,15.224154494277569,15.248190988576438,15.27222498229385,15.296255961198163,15.320283529338747,15.344307368749964,15.368327214027364,15.392342836341786,15.416354033437713,15.440360623421519,15.464362440945692,15.488359334903459,15.51235116707138,15.536337811342513,15.560319153323066,15.584295090148139,15.608265530424806,15.63223039424418,15.656189613225433,15.68014313056823,15.704090901099075,15.728032891302137,15.751969079329383,15.775899454986686,15.799824019694565,15.823742786422901,15.847655779600098,15.871563034997173,15.895464599588076,15.919360531387337,15.943250899266634,15.967135782751761,15.991015271801535,16.014889466570345,16.038758477155824,16.062622423333277,16.08648143427822,16.110335648278557,16.134185212437618,16.158030282369328,16.181871021886597,16.20570760268394,16.229540204015432,16.253369012368687,16.277194221136078,16.30101603028398,16.324834646021568,16.348650280470768,16.372463151340078,16.39627348160634,16.420081499210863,16.443887436780606,16.467691531391214,16.49149402439983,16.51529516139287,16.539095192322222,16.56289437195008,16.58669296079757,16.61049122691592,16.634289448999127,16.658087921684924,16.68188696442465,16.70568693617553,16.729488259593314,16.753291460732427,16.777097234067057,16.8009065488735,16.824720823201076,16.84854220833591,16.872374053970507,16.89622166903568,16.920093566486617,16.944003500597344,16.967973802625647,16.99204084461311,17.01626399314035,17.04074028953873,17.06562853248722,17.091188811130188,17.117847454396475,17.14630385191623
14.828743590744468,14.833157226496121,14.844665655198737,14.860695486522204,14.879608430430435,14.900360681270298,14.92228693497752,14.944963068863414,14.968118697206082,14.9915814394058,15.015241385467373,15.03902843673839,15.062897857926506,15.08682106664762,15.110779763531129,15.13476219259162,15.158760759718085,15.18277051674319,15.206788196991933,15.230811602062046,15.25483921221551,15.278869939075252,15.3029029688468,15.326937663099931,15.350973496131886,15.37501001556587,15.399046817697622,15.42308353219387,15.447119812713305,15.471155331270788,15.49518977496034,15.519222844157511,15.543254251642416,15.567283722288623,15.591310993092321,15.61533581339865,15.63935794523392,15.663377163686128,15.687393257296813,15.711406028441262,15.735415293682268,15.759420884088513,15.783422645512033,15.80742043882159,15.83141414009039,15.855403640737439,15.8793888476227,15.90336968309655,15.927346085004393,15.951318006647554,15.975285416701707,15.999248299094189,16.02320665284168,16.047160491849727,16.07110984467567,16.095054754256548,16.11899527760347,16.142931485464164,16.16686346195511,16.19079130416496,16.214715121730702,16.238635036388214,16.262551181498758,16.28646370155311,16.31037275165514,16.334278496986666,16.35818111225621,16.382080781134157,16.405977695678605,16.429872055756864,16.45376406847101,16.477653947599077,16.501541913071218,16.525428190510205,16.549313010884475,16.573196610350454,16.59707923040933,16.620961118580936,16.64484252992541,16.668723729950898,16.692604999786635,16.71648664505643,16.740369010798208,16.764252506263738,16.788137645869565,16.812025116558846,16.835915888367015,16.85981139568488,16.883713834250454,16.907626647646513,16.93155532421987,16.955508702660396,16.97950111135935,17.00355587495216,17.027711063524364,17.05202892206201,17.076611342037822,17.101625258392016,17.12734436270184,17.15421766474897,17.182982296142086
14.870248879697971,14.874623017208954,14.886055150155006,14.901977171135256,14.920755973415684,14.94135228940334,14.963104574244799,14.98559173708027,15.008545816319504,15.03179637903877,15.05523510464528,15.078793222458165,15.10242713870881,15.126109281921098,15.149822273357604,15.173555215799254,15.197301331550138,15.221056459554996,15.2448180993795,15.268584803176946,15.292355789014541,15.31613069496202,15.339909422661202,15.363692037759424,15.38747870646894,15.41126965507209,15.435065143998356,15.458865451155633,15.482670861139646,15.506481658179533,15.530298121460936,15.554120521965281,15.577949120279825,15.60178416503288,15.625625891736005,15.649474521895158,15.673330262303883,15.697193304464008,15.721063824099545,15.744941980742652,15.768827917378502,15.79272176014108,15.81662361805519,15.840533582821978,15.864451728646308,15.888378112105427,15.912312772058355,15.936255729596082,15.960206988032347,15.984166532935138,16.008134332198768,16.032110336156432,16.056094477732962,16.080086672637563,16.10408681959592,16.12809480062123,16.15211048132339,16.176133711255588,16.20016432429732,16.224202139072876,16.24824695940414,16.272298574796537,16.296356760956936,16.320421280342234,16.344491882737504,16.368568305862638,16.39265027600689,16.41673750869095,16.44082970935757,16.464926574092754,16.489027790382693,16.51313303791513,16.53724198944137,16.56135431172569,16.585469666627606,16.60958771239169,16.63370810526846,16.657830501668375,16.681954561180152,16.706079950994464,16.73020635261756,16.754333472319445,16.778461057676857,16.802588924067134,16.826716997413993,16.85084538348462,16.87497448057618,16.899105163129757,16.923239081319874,16.947379150338378,16.971530350044414,16.995701032581792,17.019905061647393,17.044165313831787,17.06851941159326,17.0930291140956,17.117795706529847,17.14298523202915,17.168869885895784,17.1958959766912,17.224795620357895
14.908621636101056,14.913011782100908,14.924532169950092,14.940586894604884,14.959525998316257,14.980299963592499,15.002240968251167,15.024924026055654,15.048078701139614,15.071532928958007,15.095177253413585,15.118942058148118,15.142783071732774,15.166672141867869,15.190591364806018,15.214529350938887,15.238478850058227,15.262435241785782,15.286395576328516,15.310357965163867,15.33432119414903,15.358284477953726,15.382247304252378,15.40620933490234,15.430170343286987,15.4541301745998,15.478088720675055,15.502045904037725,15.52600166779344,15.549955969215947,15.573908775673846,15.597860062036542,15.621809809014405,15.645758002088623,15.66970463081267,15.693649688347604,15.717593171144463,15.741535078718739,15.76547541348287,15.789414180614818,15.813351387949627,15.837287045885443,15.861221167298998,15.88515376746749,15.909084863994977,15.933014476742443,15.956942627760679,15.98086934122612,16.00479464337907,16.028718562464718,16.05264112867661,16.07656237410282,16.10048233267466,16.12440104011805,16.148318533907275,16.17223485322134,16.19615003890247,16.220064133416898,16.243977180817556,16.267889226708665,16.291800318211838,16.315710503933776,16.33961983393509,16.363528359700585,16.38743613411064,16.411343211414323,16.43524964720458,16.459155498396974,16.483060823213858,16.506965681177917,16.530870133121066,16.55477424121913,16.57867806906902,16.602581681836206,16.626485146517503,16.650388532393194,16.674291911788803,16.69819536134336,16.722098964105058,16.74600281297872,16.769907016380934,16.79381170750176,16.817717059458605,16.84162331007948,16.86553080242745,16.889440051066227,16.913351850434093,16.937267452125383,16.96118885497679,16.985119279890572,17.009063947312356,17.033031350743403,17.057035343554166,17.081098559848556,17.10525802452284,17.129574357533755,17.154146882285982,17.179138438712314,17.204816160738964,17.231618543040263,17.260265863417885
14.94958039024299,14.954003766903176,14.965543692008502,14.981609396522526,15.000554645594606,15.021332568470866,15.043277188676383,15.065964779840924,15.089125743264521,15.11258854969266,15.136244064338392,15.160022841237137,15.183880673207051,15.207789397583634,15.231731047737558,15.255694134099974,15.279671280212252,15.303657720721421,15.327650347480363,15.35164710405618,15.37564660162304,15.399647875470771,15.423650230790697,15.44765314511921,15.471656206721004,15.495659075757917,15.519661459895193,15.543663099048487,15.567663755912765,15.5916632101435,15.61566125484042,15.639657694478935,15.663652343747279,15.687645026946845,15.711635577738134,15.73562383909523,15.75960966338161,15.783592912492376,15.807573458028024,15.831551181477762,15.855525974398542,15.87949773858097,15.90346638619666,15.927431839923639,15.951394033047704,15.975352909538499,15.999308424099707,16.023260542192997,16.047209240035652,16.071154504572146,16.095096333419608,16.119034734787853,16.142969727374066,16.166901340232794,16.190829612621673,16.21475459382342,16.238676342944768,16.26259492869296,16.286510429130427,16.310422931408567,16.334332531481245,16.358239333798995,16.382143450984927,16.406045003493276,16.42994411925203,16.453840933290994,16.477735587357248,16.501628229520502,16.525519013771767,16.549408099620347,16.573295651696732,16.597181839372794,16.62106683641769,16.64495082071819,16.66883397411022,16.69271648239666,16.716598535673803,16.74048032916531,16.764362064888125,16.78824395468017,16.812126225455454,16.836009128102784,16.859892952344815,16.883778051351012,16.907664882317075,16.93155407319057,16.955446532227736,16.979343627739844,17.003247482903483,17.027161459265848,17.05109094980344,17.075044679981183,17.099036842778467,17.12309060331644,17.147243853621106,17.171558665734253,17.196136826406978,17.22114537818694,17.24685863683573,17.273727365632826,17.3024927750551
14.99670138515304,15.00110986263917,15.012604786776858,15.028600671187094,15.04745616970176,15.068128542992516,15.089955142645135,15.112514856007476,15.135540115838252,15.158860973972265,15.182369540436099,15.205997369302267,15.229701078615763,15.25345320786776,15.277236406802635,15.301039742747804,15.324856354857664,15.348681964445028,15.372513929256263,15.396350643241043,15.420191155689912,15.444034929607868,15.467881688430912,15.491731318775678,15.515583808716947,15.539439208584913,15.563297606033284,15.587159110149118,15.611023841291306,15.634891924559131,15.658763485562451,15.682638647652801,15.706517530083746,15.730400246764475,15.754286905394222,15.778177606843727,15.802072444699055,15.825971504914683,15.849874865542398,15.87378259651489,15.897694759471017,15.921611407614312,15.94553258559985,15.969458329445922,15.99338866646885,16.0173236152393,16.04126318555958,16.065207378461047,16.08915618622141,16.113109592401383,16.13706757190049,16.161030091031574,16.184997107613736,16.20896857108331,16.232944422622463,16.256924595304962,16.2809090142588,16.30489759684495,16.32889025285202,16.35288688470607,16.376887387695223,16.400891650208468,16.4248995539882,16.448910974396096,16.47292578069199,16.496943836325674,16.520964999241844,16.544989122198974,16.56901605310396,16.593045635365584,16.617077708272774,16.64111210740722,16.665148665107083,16.689187211008722,16.713227572711865,16.73726957664173,16.761313049229834,16.785357818611608,16.809403717166315,16.833450585430832,16.85749827825808,16.881546674644287,16.905595693557128,16.92964531958201,16.953695644638948,16.977746936011616,17.00179974747229,17.025855101013097,17.049914784294064,17.07398183779895,17.098061353104132,17.122161781528938,17.146297080356494,17.17049023405662,17.194779033652285,17.21922556615988,17.243931802531616,17.26906521597508,17.2949009098508,17.32189094724361,17.350778563942015
15.043950027173763,15.048365236852359,15.059908681432386,15.075976485373232,15.094916827604228,15.11568105541726,15.137603211787074,15.160260343781289,15.183383857425053,15.206803218254713,15.230410180943734,15.254136059834343,15.277937287080661,15.301786238301414,15.325665405987934,15.349563700182197,15.37347410054021,15.397392166623353,15.421315093043656,15.445241110391644,15.469169105528943,15.493098380994093,15.517028502595666,15.54095920288837,15.56489032004818,15.58882175916247,15.612753467708764,15.636685420011522,15.660617607378532,15.68455003182914,15.708482702094082,15.732415631051719,15.756348834073234,15.780282327943272,15.804216130145782,15.828150258382053,15.852084730237548,15.87601956294445,15.899954773207075,15.923890377068945,15.947826389808775,15.971762825856727,15.99569969872621,16.01963702095759,16.043574804072044,16.06751305853409,16.09145179372204,16.115391017905704,16.13933073823107,16.16327096071151,16.187211690225347,16.21115293051951,16.235094684219042,16.259036952842212,16.28297973682111,16.306923035527273,16.33086684730231,16.354811169493164,16.378755998491734,16.402701329778658,16.426647157971065,16.45059347687387,16.474540279534775,16.498487558302546,16.522435304888877,16.546383510433863,16.570332165575888,16.594281260526913,16.618230785155344,16.64218072907999,16.666131081781238,16.690081832739256,16.714032971615975,16.737984488507696,16.76193637431304,16.78588862128887,16.809841223913363,16.83379418025124,16.85774749413988,16.881701178718348,16.905655262153243,16.929609796959767,16.95356487520796,16.977520653365545,17.001477392925462,17.02543552689671,17.04939576868757,17.073359290497255,17.097328015717977,17.121305098407866,17.145295709826783,17.169308329179845,17.193356862603846,17.21746412321496,17.241667548742008,17.26602859942825,17.290648212178223,17.31569222697504,17.34143324645853,17.36831960358055,17.39708911228479
15.093753430426345,15.098192738870095,15.109765628694978,15.125864643556513,15.14483658644582,15.165632486019343,15.18758651936721,15.210276014981089,15.233432663671728,15.25688615973653,15.28052841342663,15.304290823796457,15.328129846833628,15.352017832959142,15.375937211539226,15.399876800963577,15.423829468240491,15.447790645130587,15.471757387740656,15.495727780809066,15.519700560531524,15.543674875890956,15.567650137732706,15.591625923404834,15.615601916570768,15.639577869275032,15.663553578081597,15.687528869106025,15.711503588664828,15.735477597469043,15.75945076705161,15.78342297759983,15.807394116669574,15.831364078450303,15.855332763372159,15.879300077923029,15.9032659345924,15.927230251889288,15.951192954401092,15.97515397287225,15.999113244289592,16.023070711965833,16.04702632561599,16.07098004142339,16.094931822093073,16.118881636891437,16.14282946167113,16.166775278880937,16.19071907756027,16.21466085331828,16.23860060829756,16.262538351122576,16.28647409683301,16.310407866802198,16.33433968864097,16.35826959608721,16.382197628881453,16.406123832628932,16.43004825864853,16.453970963809017,16.477892010353234,16.50181146571063,16.525729402298953,16.549645897315727,16.573561032520516,16.597474894009018,16.62138757198055,16.645299160500915,16.6692097572637,16.69311946335444,16.717028383024456,16.740936623485396,16.76484429474154,16.788751509487778,16.812658383118315,16.836565033919236,16.86047158356437,16.88437815810933,16.908284889802605,16.932191920235365,16.956099405684707,16.980007526050798,17.00391649968426,17.027826607870217,17.051738235149728,17.075651935623952,17.09956854190161,17.123489344057447,17.14741638357567,17.171352936208667,17.195304305326626,17.21927912575469,17.2432915072239,17.267364559278043,17.291536190054963,17.315868649478283,17.34046424142958,17.36549120540291,17.391226374979464,17.418125541467745,17.446939636010256
15.148021260973097,15.152459769922274,15.164014137549588,15.180078596560154,15.199002513587693,15.219739519130785,15.241626088431799,15.264241447602064,15.287318799512654,15.310689023002753,15.334244952909302,15.357918715172117,15.381667346636425,15.405463672936373,15.429290523333902,15.453137062919117,15.476996467973125,15.50086445311789,15.524738338460205,15.54861645894811,15.572497790520194,15.5963817135442,15.620267863165097,15.644156034650397,15.668046123525608,15.691938087709886,15.715831923559149,15.739727650698532,15.763625302408201,15.787524919517598,15.811426546516152,15.835330229064823,15.859236012393442,15.883143940259114,15.907054054260632,15.930966393380082,15.95488099366977,15.978797888033936,16.002717106072172,16.02663867396521,16.05056261438932,16.07448894645233,16.098417685645224,16.122348843807053,16.146282429100413,16.17021844599674,16.194156895270265,16.218097774000267,16.242041075581184,16.265986789740296,16.28993490256281,16.313885396524203,16.337838250529458,16.361793439959435,16.385750936723728,16.409710709320382,16.43367272290179,16.457636939347122,16.481603317340674,16.505571812456363,16.529542377247918,16.553514961344895,16.577489511554262,16.60146597196761,16.625444284074142,16.649424386879648,16.673406217032223,16.69738970895581,16.721374794993732,16.74536140556569,16.76934946934419,16.793338913460293,16.817329663754983,16.841321645102813,16.865314781852106,16.889308998453696,16.9133042203968,16.937300375646025,16.961297396897823,16.985295225178106,17.009293815636482,17.033293146940437,17.057293236571542,17.081294165802035,17.105296120554193,17.12929945832823,17.153304817930493,17.177313299496557,17.20132676000405,17.225348298590387,17.249383053915768,17.273439514712944,17.29753167461468,17.321682576463107,17.345930144262088,17.370336783099727,17.39500518828825,17.420104392611396,17.445912707347087,17.472888567767193,17.50178753706922
15.203474505504213,15.20791899326019,15.219502182554288,15.235605972150553,15.254573355511061,15.275354830666416,15.297285455798983,15.319943912358372,15.343063274788273,15.366474470318593,15.390070438967093,15.413783412827184,15.437570513429572,15.461404623658217,15.485268604070969,15.50915162939292,15.533046868735918,15.556950017186491,15.58085836662914,15.604770217987566,15.628684509556239,15.65260058204966,15.676518030118784,15.700436608533368,15.724356172912357,15.748276642280123,15.772197975406673,15.796120155850183,15.82004318249213,15.84396706353854,15.867891812708237,15.891817446801294,15.915743984138782,15.9396714435532,15.963599843727359,15.987529202754704,16.011459537840757,16.035390865095508,16.059323199384913,16.083256554221748,16.1071909416832,16.131126372347477,16.155062855244356,16.179000397816708,16.202939005890975,16.226878683655375,16.250819433644985,16.27476125673326,16.298704152129528,16.322648117382236,16.346593148387754,16.370539239404486,16.39448638307219,16.41843457043635,16.442383790977303,16.466334032644195,16.490285281893378,16.51423752373117,16.53819074176084,16.562144918233585,16.58610003410334,16.61005606908537,16.63401300171844,16.657970809430598,16.68192946860865,16.70588895467166,16.729849242148966,16.75381030476404,16.777772115526094,16.801734646832948,16.82569787059103,16.84966175836217,16.87362628155315,16.897591411674593,16.92155712071218,16.94552338168174,16.969490169484445,16.99345746225389,17.017425243508455,17.041393505624253,17.065362255472873,17.0893315236107,17.11330137929535,17.137271955067234,17.16124348703598,17.185216380962277,17.209191320722283,17.23316944643221,17.257152647105535,17.281144041687284,17.305148770028634,17.32917529399783,17.353237538541272,17.37735841627212,17.40157563186516,17.425951244829605,17.45058743127371,17.475652476307726,17.50142366367111,17.528358101986313,17.557209806870674
15.261343713312737,15.265805733526523,15.277418479867638,15.293556517134723,15.312559443998298,15.33337638828452,15.355342022618322,15.378035077083128,15.401188828847303,15.424634428197729,15.448265001688434,15.472012913229197,15.495835361312919,15.519705258142313,15.543605455200534,15.567525088620098,15.591457266980584,15.615397608977798,15.639343318951394,15.663292602684942,15.687244298397422,15.711197643771778,15.735152128948654,15.75910740382185,15.78306321962105,15.807019392134668,15.830975778585106,15.854932263112312,15.878888747682705,15.902845146414712,15.926801382054354,15.950757383802195,15.974713085988258,15.998668427277902,16.022623350208672,16.046577800932514,16.070531729084053,16.094485087725026,16.118437833333626,16.14238992581875,16.166341328547023,16.19029200837437,16.214241935677695,16.238191084382983,16.262139431988516,16.286086959581382,16.31003365184708,16.333979497071297,16.357924487134106,16.381868617495922,16.405811887175748,16.429754298721278,16.453695858171262,16.477636575010056,16.501576462114585,16.525515535693945,16.54945381522161,16.57339132336081,16.59732808588297,16.621264131579714,16.645199492168615,16.669134202193007,16.693068298916426,16.71700182221187,16.74093481444678,16.76486732036435,16.788799386962424,16.81273106337164,16.836662400735403,16.860593452095603,16.884524272290506,16.90845491787487,16.932385447078754,16.95631591983148,16.98024639789444,17.00417694517337,17.02810762832658,17.052038517859213,17.075969690016073,17.099901229985093,17.123833237253272,17.147765834496965,17.171699182278644,17.195633503284757,17.219569122247705,17.243506531658557,17.267446499904793,17.291390249220406,17.31533974855578,17.339298195685977,17.36327081104767,17.38726614526301,17.411298233457842,17.435390146013255,17.45957984306383,17.483929831212944,17.508543098698173,17.53358942402132,17.559348836826256,17.586283468375186,17.615156459392097
15.32298777770928,15.327455555020508,15.339067798316627,15.355196749974658,15.37418211563093,15.394974103215803,15.416908724378137,15.439565986008956,15.462680259583493,15.486083583696251,15.509669785690084,15.533371775536718,15.557147177125907,15.580969237318932,15.604821075701487,15.62869204852367,15.652575450270847,15.676467061285102,15.700364230333994,15.724265295300539,15.748169217510078,15.772075350990455,15.795983296924442,15.819892811869499,15.843803749899074,15.86771602613681,15.891629593777681,15.915544429608572,15.939460524883723,15.963377879572562,15.987296498731194,16.011216390210567,16.035137563206465,16.05906002733915,16.08298379206706,16.106908866310807,16.130835258210325,16.154762974966186,16.178692022734765,16.20262240655775,16.22655413031424,16.250487196687633,16.27442160714275,16.29835736191005,16.32229445997527,16.34623289907308,16.37017267568426,16.394113785035742,16.418056221103345,16.441999976616955,16.465945043067993,16.489891410719224,16.51383906861663,16.537788004603495,16.561738205336564,16.585689656304265,16.609642341846904,16.633596245178964,16.657551348413307,16.681507632587344,16.70546507769124,16.729423662697993,16.75338336559572,16.77734416342203,16.801306032300886,16.825268947482414,16.84923288338633,16.873197813650325,16.8971637111856,16.921130548242996,16.94509829649564,16.96906692714774,16.993036411085274,17.017006719094717,17.040977822192332,17.064949692134302,17.08892230222275,17.112895628596856,17.13686965231981,17.160844362772302,17.184819763192163,17.208795879740617,17.232772776366097,17.25675057920216,17.280729516649934,17.30470998527185,17.328692658175893,17.35267866337197,17.376669877393795,17.400669408863788,17.424682395164854,17.448717315424883,17.472788155198455,17.496917976603633,17.52114480861319,17.545531369131258,17.570181118410765,17.595264779979015,17.621064180230967,17.6480447710537,17.676975725963757
15.38646536091275,15.390940764278485,15.40257422477571,15.418728440284738,15.437738721595947,15.458553533344034,15.480508439681845,15.503183578351086,15.526313664605977,15.549731118642898,15.57333011204785,15.597043836710066,15.620830134646841,15.64466241520603,15.668523915712699,15.692404075921964,15.716296248521035,15.740196253832988,15.7641014677625,15.788010246446252,15.81192156343119,15.835834780950869,15.859749505781588,15.883665498425932,15.907582615906577,15.931500775735788,15.955419933221606,15.979340067170885,16.003261170877394,16.027183246435637,16.05110630114697,16.07503034524219,16.098955390432426,16.12288144898159,16.146808533107674,16.170736654591582,16.194665824517763,16.21859605309865,16.242527349553242,16.266459722020876,16.29039317749857,16.314327721794477,16.338263359492974,16.362200093928294,16.386137927165148,16.410076859984937,16.434016891876993,16.45795802103435,16.481900244353668,16.505843557439125,16.529787954610185,16.55373342891298,16.5776799721353,16.601627574825056,16.62557622631206,16.649525914733154,16.673476627060396,16.697428349132416,16.721381065688615,16.745334760406347,16.769289415940733,16.79324501396731,16.817201535227298,16.841158959575576,16.8651172660316,16.88907643283346,16.913036437495865,16.936997256873127,16.960958867229234,16.984921244318244,17.008884363480888,17.032848199766494,17.056812728095917,17.08077792349086,17.104743761411637,17.1287102182724,17.152677272247406,17.176644904555065,17.200613101526795,17.22458185796577,17.248551182626638,17.27252110718365,17.296491700938624,17.320463094976372,17.344435521874757,17.368409381033914,17.39238534621463,17.416364542643063,17.440348838808802,17.464341327421824,17.4883471184496,17.512374647215317,17.536437832866785,17.560559641342273,17.584777968965593,17.609155362045165,17.633795080522372,17.658867659722844,17.684654857400826,17.71162242087773,17.74054069961153
15.452131917563026,15.45662173894538,15.46828267086852,15.484468688493399,15.503511135772943,15.524356938480732,15.546341292464305,15.569044476534776,15.592201522747576,15.615645186360513,15.639269926669753,15.663009156005714,15.686820870662222,15.710678577496985,15.734565566047314,15.758471293750478,15.782389105495556,15.80631479548539,15.830245700635059,15.85418012927515,15.878117001294479,15.902055621564514,15.925995537345981,15.949936448593428,15.973878151565346,15.99782050339595,16.02176339985394,16.045706761393884,16.069650524419835,16.093594635823194,16.11753904957658,16.141483724617096,16.165428623538183,16.189373711787095,16.213318957178522,16.23726432960486,16.26120980086841,16.285155344588606,16.309100936154696,16.333046552705493,16.356992173124652,16.380937778044064,16.404883349850948,16.42882887269582,16.452774332499384,16.476719716957437,16.500665015542975,16.524610219505146,16.548555321864807,16.572500317406497,16.596445202666832,16.620389975919274,16.644334637155293,16.668279188061977,16.69222363199613,16.716167973954967,16.74011222054348,16.764056379938495,16.78800046184977,16.811944477477883,16.835888439469542,16.85983236186999,16.883776260073216,16.907720150769887,16.931664051893748,16.95560798256684,16.97955196304465,17.003496014662588,17.027440159785975,17.051384421767306,17.075328824916543,17.099273394494013,17.123218156741494,17.14716313897689,17.1711083697942,17.19505387943751,17.218999700461215,17.242945868862027,17.26689242598697,17.290839421718967,17.31478691976536,17.338735006409564,17.3626838049669,17.386633499639515,17.41058437486374,17.43453688020197,17.458491737368494,17.482450116775354,17.50641392882527,17.5303863046661,17.55437238987932,17.578380655223924,17.602425062009857,17.626528640595666,17.650729406399133,17.675090144155142,17.69971459669474,17.72477426368255,17.750552790329525,17.77751954762123,17.806451727741944
15.52103568015052,15.525534334825798,15.537205889492958,15.553398869586395,15.572442902395771,15.59328492378869,15.615260833045694,15.637951799495134,15.661093705420074,15.684520030817158,15.708125817360036,15.731844930075711,15.75563571100344,15.779471929418108,15.803337074687146,15.82722075823655,15.851116445955423,15.8750200295894,15.89892892703228,15.922841515916272,15.946756777162902,15.970674070748485,15.9945929946959,16.018513296435287,16.04243481710525,16.066357456565385,16.090281151426876,16.11420586126181,16.13813155994945,16.1620582302474,16.18598586038692,16.209914441937844,16.233843968470072,16.257774434714197,16.281705836035236,16.30563816810233,16.329571426681543,16.353505607505422,16.37744070619112,16.401376718188494,16.42531363874758,16.449251462897728,16.473190185434603,16.49712980091179,16.521070303635746,16.545011687662573,16.568953946796395,16.592897074588485,16.616841064337365,16.64078590908912,16.664731601638568,16.68867813453044,16.712625500061286,16.736573690281382,16.76052269699735,16.784472511774744,16.808423125941346,16.832374530590467,16.856326716584988,16.88027967456143,16.904233394934842,16.928187867903862,16.9521430834567,16.97609903137767,17.000055701255064,17.024013082490313,17.04797116430981,17.07192993577999,17.09588938582847,17.119849503273958,17.143810276871214,17.167771695379724,17.191733747671815,17.21569642290467,17.239659710798,17.26362360208435,17.28758808924426,17.311553167709114,17.33551883783481,17.359485108143932,17.383452000658803,17.407419559679674,17.431387866244098,17.45535706195534,17.479327388269816,17.503299251297847,17.527273328728054,17.551250746320832,17.575233369339283,17.599224283934046,17.623228592569344,17.647254728813788,17.671316631368697,17.69543734013729,17.719654946691325,17.74403244443767,17.768674041163617,17.793752186917036,17.81955238228422,17.846547520190445,17.87552135441848
15.592221747469713,15.596729525348763,15.608420510311722,15.624634407221942,15.643697101547337,15.664554317695465,15.686541916696042,15.709241502922106,15.73238952379136,15.755820000141423,15.779428432093999,15.803149048922135,15.826940470948003,15.850776674856911,15.874641302301582,15.898524075714851,15.922418541901731,15.94632065202353,15.97022786826367,15.994138602031022,16.018051860785196,16.041967026089583,16.06588371417918,16.08980168839305,16.11372080419475,16.137640974660464,16.16156214881843,16.185484298053943,16.209407407575398,16.233331471054438,16.257256487256946,16.281182457921943,16.30510938642322,16.32903727692154,16.352966133824914,16.376895961442234,16.400826763758733,16.4247585442884,16.448691305975256,16.472625051126066,16.49655978136341,16.520495497592396,16.544432199976605,16.568369887920795,16.592308560058395,16.616248214243168,16.64018884754385,16.664130456241935,16.688073035831767,16.712016581023253,16.73596108574662,16.75990654315957,16.783852945656307,16.807800284878795,16.83174855172977,16.855697736387892,16.879647828324522,16.903598816322464,16.92755068849636,16.951503432314777,16.975457034624046,16.999411481673626,17.02336675914327,17.04732285217184,17.07127974538823,17.095237422944482,17.11919586855204,17.143155065522087,17.16711499681207,17.191075645081547,17.215036992762926,17.238999022155912,17.26296171556078,17.28692505547461,17.310889024891402,17.334853607772263,17.358818789795997,17.382784559571082,17.406750910608284,17.430717844546958,17.454685376449245,17.478653543505736,17.502622419371647,17.526592137798513,17.55056293161754,17.574535197084938,17.59850960014037,17.62248725195516,17.64646999906624,17.670460903068026,17.6944650339948,17.71849078299615,17.74255203497229,17.766671765847416,17.79088800086902,17.81526368746305,17.83990306153759,17.864978791380263,17.89077702315016,17.91777219100628,17.946751388091798
15.66555888262428,15.670079885789503,15.681796599928328,15.698039388222282,15.717130047445416,15.738012852582074,15.760023457249629,15.782743775513751,15.805910722616934,15.82935878092382,15.852983841237734,15.87672043670212,15.90052741025534,15.924378893311754,15.948258629016554,15.972156401221213,15.996065788851519,16.01998275425147,16.043904756111804,16.06783019225401,16.091758049749313,16.115687685312615,16.13961868752077,16.163550790405033,16.187483819286047,16.21141765683733,16.23535222183398,16.25928745585383,16.283223314961205,16.307159764511916,16.33109677591174,16.355034324597632,16.378972388783122,16.402910948681424,16.42684998602642,16.450789483779527,16.474729425951843,16.498669797497907,16.522610584253506,16.546551772900305,16.570493350946734,16.594435306718317,16.618377629353287,16.642320308800926,16.66626333582098,16.690206701983087,16.714150399665698,16.73809442205402,16.76203876313678,16.78598341770167,16.80992838132939,16.833873650386277,16.85781922201547,16.881765094126585,16.90571126538411,16.929657735194187,16.953604503690254,16.97755157171718,17.00149894081425,17.025446613196884,17.049394591737276,17.073342879943958,17.09729148194058,17.121240402443952,17.145189646741848,17.169139220670942,17.193089130595745,17.217039383389775,17.240989986421038,17.26494094754521,17.288892275111863,17.312843977992895,17.33679606564776,17.36074854824988,17.384701436914124,17.40865474409135,17.43260848423858,17.456562674944106,17.48051733880355,17.50447250653537,17.528428222143262,17.552384551459216,17.57634159627256,17.600299517691386,17.624258574768664,17.64821918837492,17.672182046841108,17.69614828073311,17.720119752081466,17.74409953316931,17.768092699370328,17.79210764247013,17.816158246905346,17.840267497176097,17.86447345982631,17.888839206925866,17.913469285148835,17.93853706135066,17.964330154511174,17.991325973544317,18.020317440708595
15.741670130465032,15.746201849826068,15.757935936163456,15.77419514171777,15.793298374331444,15.814189288454674,15.836203903450977,15.858924841960715,15.88208976841757,15.905533829584957,15.929153457828049,15.95288360685268,15.97668343655547,16.00052731286601,16.024399150732673,16.048288859535813,16.072190110315706,16.096098933779675,16.12001284028927,16.143930267692664,16.167850234994848,16.19177212521566,16.215695549297788,16.239620260845346,16.263546102728252,16.287472973656378,16.31140080726296,16.335329559021687,16.359259198066866,16.38318970208182,16.40712105410606,16.4310532405424,16.454986249913627,16.478920072087682,16.502854697795154,16.526790118329345,16.55072632535996,16.574663310817897,16.598601066823893,16.6225395856448,16.646478859666704,16.670418881378563,16.694359643362265,16.71830113828663,16.7422433589037,16.766186298046435,16.79012994862715,16.81407430363633,16.838019356141615,16.861965099286813,16.885911526290787,16.909858630446315,16.93380640511872,16.957754843744432,16.981703939829313,17.00565368694691,17.02960407873651,17.05355510890114,17.077506771205382,17.101459059473232,17.12541196758584,17.149365489479415,17.17331961914319,17.197274350617857,17.221229677994465,17.24518559541463,17.269142097072255,17.293099177218632,17.317056830172135,17.341015050336505,17.364973832232394,17.388933170551514,17.412893060247285,17.4368534966865,17.460814475900694,17.48477599500294,17.508738052876733,17.532700651315093,17.556663796902345,17.580627504124013,17.604591800505755,17.628556735108155,17.65252239257173,17.67648891634587,17.700456547118712,17.724425686416147,17.748397001888357,17.77237160166715,17.796351323202042,17.820339211900258,17.84434031456374,17.868362995111145,17.892421117134234,17.916537665663665,17.940750759381636,17.965123634909837,17.989761234445464,18.014837777425175,18.040642616537774,18.067656560999627,18.09667904086905
15.820227531296915,15.82476959766514,15.836523942673848,15.852804212339743,15.871925586440396,15.892830630653329,15.914855470220399,15.937583292590443,15.960752431647455,15.984198653681027,16.007818906454006,16.031548547936573,16.055347043790402,16.079188985861265,16.103058453608273,16.126945475320042,16.150843807908128,16.174749544454446,16.198660241216583,16.22257437050477,16.24649097791329,16.270409467656084,16.294329468176823,16.318250748043486,16.34217316332926,16.366096624702127,16.390021076846025,16.41394648559543,16.437872829892548,16.461800096759138,16.48572827815183,16.509657368994354,16.533587365944467,16.557518266620207,16.581450069112606,16.60538277167786,16.629316372541375,16.653250869772315,16.6771862612021,16.701122544371092,16.725059716492826,16.74899777443003,16.77293671467796,16.7968765333531,16.820817226185326,16.844758788512873,16.868701215279238,16.892644501031945,16.916588639922647,16.94053362570864,16.964479451755523,16.988426111041065,17.012373596160067,17.03632189933041,17.060271012399944,17.084220926854535,17.108171633826903,17.13212312410651,17.156075388150274,17.18002841609424,17.203982197766038,17.227936722698427,17.251891980143583,17.275847959088708,17.299804648272726,17.323762036204872,17.34772011118544,17.37167886133018,17.395638274599868,17.41959833883847,17.443559041824802,17.467520371346428,17.491482315309867,17.5154448619105,17.539407999900927,17.563371719021802,17.58733601070092,17.611300869195805,17.635266293469524,17.659232290279427,17.683198879273018,17.707166101406322,17.73113403286406,17.755102808093447,17.779072657939363,17.80304397281143,17.827017407356955,17.850994053979186,17.874975730586318,17.89896545794075,17.922968251813604,17.94699243801116,17.9710518361646,17.995169387517503,18.01938318375372,18.04375648989532,18.06839441442766,18.093471648619317,18.119278652255232,18.146298610515437,18.175335795484443
15.901021861115877,15.905576705158397,15.917355903243752,15.93366324384986,15.952809735519617,15.973736588547387,15.995779868778559,16.01852322142462,16.041705576265297,16.065163264842337,16.08879370715375,16.112532628684825,16.13633976782596,16.160189911466976,16.184067273987772,16.207961973782442,16.23186782534943,16.255780956243207,16.279698941040557,16.303620259251417,16.32754395612924,16.351469430518158,16.375396302209293,16.39932432904086,16.42325335510816,16.44718327842225,16.471114030722624,16.495045564882126,16.518977847052916,16.542910851771566,16.566844558910553,16.590778951781168,16.614714015954245,16.638649738527995,16.662586107674343,16.68652311235835,16.710460742165385,16.734398987194915,16.758337837995775,16.782277285526767,16.806217321133065,16.830157936531922,16.854099123804232,16.878040875389257,16.901983184081327,16.925926043027335,16.949869445724698,16.973813386019238,16.997757858102936,17.021702856511272,17.045648376120205,17.069594412142646,17.09354096012453,17.117488015940225,17.141435575787675,17.165383636182828,17.18933219395372,17.213281246234107,17.237230790456515,17.261180824345097,17.28513134590792,17.309082353429183,17.33303384546102,17.356985820815595,17.380938278557117,17.404891217994923,17.428844638677614,17.452798540390102,17.47675292315473,17.500707787240337,17.524663133183633,17.548618961832023,17.572575274421194,17.596532072711177,17.6204893592183,17.644447137606875,17.668405413344296,17.692364194793146,17.716323495026074,17.740283334838598,17.7642437477459,17.788204788268587,17.812166545670422,17.836129166738644,17.86009289356523,17.884058126223714,17.908025526774832,17.931996191906226,17.95597193958847,17.979955785202726,18.003952732637277,18.027971089155432,18.052024651565173,18.076136342342593,18.100344259588788,18.12471174714664,18.149344163368678,18.174416818036963,18.200221542794743,18.227244381814735,18.256295332009074
15.98430796777107,15.988874786812785,16.000675402089865,16.01700448953776,16.036169433315933,16.057110480995856,16.079163917282024,16.10191404131237,16.12510051747686,16.14856034185882,16.172191479346093,16.195930077827207,16.219736191576036,16.243584837987324,16.267460396793876,16.291353103633003,16.315256855545183,16.339167838031212,16.363083666411885,16.38700284903188,16.410924451796483,16.43484788860762,16.458772790499026,16.482698923947417,16.506626139900284,16.530554341982736,16.554483466675116,16.57841347095917,16.602344324622326,16.626276005465886,16.650208496322914,16.67414178320348,16.698075854141784,16.722010698480208,16.74594630642513,16.769882668771558,16.793819776732978,16.817757621836023,16.841696195855782,16.865635490775897,16.889575498764188,16.91351621215763,16.93745762345319,16.961399725302076,16.985342510506047,17.00928597201493,17.0332301029247,17.05717489647598,17.081120346052423,17.10506644517929,17.129013187521707,17.152960566882946,17.176908577202365,17.200857212553277,17.224806467140578,17.248756335298168,17.272706811486245,17.296657890288365,17.32060956640843,17.344561834667505,17.368514690000584,17.39246812745333,17.41642214217896,17.44037672943528,17.46433188458236,17.488287603081012,17.51224388049296,17.536200712483666,17.5601580948298,17.584116023434156,17.608074494353378,17.632033503846284,17.65599304845699,17.679953125155052,17.703913731570452,17.72787486638531,17.751836529985553,17.77579872554304,17.79976146081154,17.823724751106155,17.84768862424604,17.871653128754698,17.89561834746765,17.919584420118642,17.943551580839312,17.9675202204383,17.99149098986674,18.015464972162693,18.0394439682916,18.063430972484344,18.08743096296496,18.11145221777445,18.135508505141253,18.159622730934124,18.183833014693032,18.208202815160412,18.23283781131482,18.25791405959313,18.28372498695465,18.310759878905696,18.339835105300438
16.070006802732475,16.074585144024727,16.08640786121578,16.102759845143925,16.121944524249653,16.142901028858397,16.164965797032963,16.187723759296162,16.210915311493917,16.234378118846475,16.258010698035946,16.281749626247255,16.305555279702862,16.329402911396855,16.353277070661324,16.377168113971663,16.401070024043253,16.424979047148145,16.448892841982556,16.472809948243313,16.49672945494312,16.52065079346765,16.544573608507445,16.568497677588606,16.592422860920284,16.616349070147763,16.640276248890274,16.664204360622566,16.68813338113054,16.712063293815557,16.735994086771417,16.759925750965014,16.78385827910306,16.807791664926004,16.831725902767165,16.855660987277286,16.87959691325156,16.90353367552086,16.927471268882634,16.95140968805697,16.975348927658096,16.999288982176,17.023229845964195,17.047171513231756,17.071113978037985,17.095057234289065,17.119001275736014,17.14294609597371,17.166891688440735,17.19083804641993,17.21478516303951,17.238733031274847,17.26268164395063,17.286630993743664,17.31058107318603,17.334531874668766,17.358483390445972,17.382435612639323,17.40638853324308,17.430342144129455,17.454296437054488,17.47825140366437,17.502207035502355,17.52616332401629,17.550120260567155,17.57407783643873,17.598036042849323,17.621994870966326,17.645954311925582,17.669914356858374,17.69387499693092,17.71783622340443,17.741798027729214,17.76576040169484,17.789723337673408,17.813686829016884,17.83765087071,17.861615460447187,17.885580600413046,17.90954630023107,17.933512581852433,17.957479487668067,17.981447093977486,18.00541553336324,18.029385031875393,18.053355970854057,18.077328989752385,18.10130515721281,18.125286255800766,18.14927525606889,18.1732771061132,18.19730004703199,18.221357805332378,18.245473248186038,18.26968447981727,18.29405501323744,18.318690748793518,18.34376832823677,18.369582513406694,18.396625413715356,18.425719107850625
16.157995868549488,16.162586993196282,16.174434609322162,16.190813170595344,16.210021795663295,16.230998304488978,16.253079181507808,16.275849927189466,16.29905163113753,16.32252260216816,16.34616188931125,16.36990648258017,16.393717065093114,16.417569111047023,16.44144732528413,16.465342171190137,16.489247703341356,16.51316021507845,16.53707739489951,16.560997800434475,16.584920530567516,16.60884502114365,16.632770917726166,16.656697996374337,16.680626114338036,16.704555179383167,16.728485130715697,16.752415927123035,16.776347539605414,16.800279946798803,16.824213132133444,16.848147082070316,16.872081785007516,16.89601723060213,16.91995340935032,16.943890312327188,16.967827931025994,16.99176625725864,17.015705283094334,17.03964500082153,17.063585402924588,17.087526482069084,17.11146823109283,17.135410642999943,17.159353710957134,17.18329742829096,17.207241788485884,17.231186785182558,17.25513241217641,17.279078663416012,17.30302553300176,17.326973015184077,17.35092110436187,17.374869795080546,17.398819082030176,17.422768960043282,17.446719424092695,17.47067046928912,17.494622090878753,17.518574284240653,17.542527044884185,17.566480368446403,17.590434250689512,17.614388687498614,17.63834367487987,17.662299208959556,17.68625528598457,17.710211902325547,17.73416905448416,17.758126739107734,17.782084953015644,17.806043693245712,17.830002957133523,17.853962742446576,17.87792304760944,17.901883872080028,17.925845216976885,17.949807086123545,17.973769487785923,17.997732437561986,18.021695963187433,18.045660112528825,18.069624966880568,18.093590663090982,18.117557430389674,18.141525651703265,18.165495965774472,18.189469437292797,18.213447840424696,18.237434131485134,18.261433237187795,18.285453369612195,18.30950822059524,18.333620624969626,18.35782867806173,18.382195955656268,18.406828594770854,18.431903854719078,18.457717902297638,18.484765820403588,18.513875707017235
16.248349002320428,16.25295288473429,16.26482438743064,16.28122772549272,16.300457902189653,16.321451589913444,16.34354544572151,16.366325633827906,16.38953400566346,16.41300956258601,16.43665192129066,16.460398510511187,16.484210339778357,16.50806311976816,16.531941723321083,16.555836731399168,16.579742279913013,16.60365471795455,16.627571771967048,16.651492025270542,16.675414594081314,16.69933892591822,16.723264674210682,16.747191620333574,16.771119625149524,16.79504859890231,16.81897848251928,16.842909236003667,16.86684083123155,16.890773247483803,16.914706468675984,16.9386404816415,16.962575275068385,16.986510838841003,17.0104471636329,17.034384240655026,17.058322061500288,17.082260618047513,17.106199902402295,17.1301399068604,17.154080623885257,17.178022046093915,17.201964166248295,17.22590697724954,17.249850472134348,17.273794644072286,17.297739486363863,17.321684992438772,17.345631155854388,17.369577970294213,17.39352542956633,17.417473527601736,17.441422258452583,17.4653716162903,17.489321595403627,17.513272190196453,17.53722339518563,17.56117520499861,17.585127614371054,17.60908061814429,17.63303421126287,17.656988388772007,17.68094314581524,17.70489847763229,17.728854379557415,17.752810847018647,17.77676787553848,17.800725460737098,17.82468359833981,17.848642284191452,17.872601514282596,17.896561284795037,17.92052159217976,17.944482433288403,17.96844380559416,17.9924057075608,18.016368139258596,18.040331103390397,18.064294607000733,18.088258664321323,18.112223301509317,18.1361885645377,18.16015453233833,18.184121338699356,18.208089208759358,18.232058519846486,18.256029902935346,18.280004411893575,18.303983805904746,18.327971020904762,18.351970956791543,18.37599179235782,18.400047182464938,18.424159930667848,18.448368130306445,18.472735437113712,18.4973682600761,18.522444543517263,18.54826198385121,18.575318864172143,18.604449710843824
16.341035005958577,16.345651439420166,16.35754700469527,16.373975334139715,16.39322718114312,16.414238033029488,16.436344722952317,16.459134096633587,16.48234878755371,16.505828507706124,16.529473456164556,16.55322151185519,16.577034019558273,16.600886933298685,16.624765299392504,16.64865982090578,16.672564718979935,16.696476401943084,16.720392637401346,16.7443120374079,16.76823373843546,16.79215720251505,16.81608209371145,16.840008201422705,16.86393539277137,16.887863583063822,16.91179271746676,16.935722759645273,16.959653684719637,16.983585474900483,17.007518116784205,17.031451599677485,17.055385914559103,17.07932105343669,17.10325700894781,17.127193774112442,17.15113134217911,17.175069706529044,17.199008860616242,17.222948797929824,17.246889511970252,17.270830996234125,17.29477324420445,17.318716249344277,17.342660005092558,17.366604504861414,17.390549742034402,17.414495709965397,17.43844240197805,17.462389811365533,17.48633793139069,17.510286755286366,17.534236276256085,17.55818648747479,17.582137382090004,17.606088953222947,17.63004119397007,17.653994097404617,17.677947656578493,17.701901864524253,17.72585671425739,17.749812198778834,17.77376831107786,17.797725044135333,17.82168239092782,17.845640344432496,17.86959889763387,17.893558043532966,17.91751777516079,17.94147808559875,17.96543896801059,17.98940041569335,18.01336242215998,18.0373249812745,18.061288087474647,18.085251736139952,18.1092159242021,18.133180651158757,18.15714592075961,18.181111743812874,18.2050781428599,18.229045159965555,18.25301286970697,18.276981400838146,18.300950972439022,18.324921954254517,18.348894967445545,18.372871052874995,18.396851952293133,18.420840578321148,18.444841800262356,18.468863758418667,18.49292006311327,18.517033475222807,18.54124206855245,18.565609551540863,18.590242562875236,18.61531966679921,18.641139990460847,18.668204869906877,18.697355046774533
16.435993561597225,16.440623150767088,16.452544360770283,16.468999745361792,16.488275563672204,16.509306000972853,16.531428012244927,16.554229100086648,16.577452668553793,16.600939134048215,16.62458927344962,16.648341411471147,16.67215722339471,16.696012901415777,16.719893659786194,16.743790317884123,16.76769717614136,16.791610696116294,16.815528680569127,16.839449764319586,16.863373098205425,16.887298152977714,16.91122459766259,16.93515222414039,16.959080900399176,16.983010541571364,17.006941091995422,17.030872514109745,17.05480478157926,17.078737875042982,17.102671779484137,17.126606482604245,17.150541973818296,17.174478243633835,17.198415283267465,17.222353084407988,17.246291639070044,17.270230939503747,17.294170978138737,17.31811174754957,17.342053240434183,17.36599544960043,17.38993836795761,17.413881988511005,17.43782630435834,17.46177130868731,17.48571699477388,17.50966335598093,17.533610385757164,17.557558077636198,17.581506425235666,17.60545542225639,17.62940506248157,17.653355339775946,17.677306248084975,17.70125778143398,17.72520993392729,17.749162699747373,17.773116073153957,17.797070048483203,17.821024620146844,17.844979782631526,17.86893553049819,17.89289185838188,17.916848760991886,17.94080623311292,17.96476426960757,17.988722865421252,18.01268201559105,18.036641715261347,18.060601959710404,18.084562744395562,18.1085240650291,18.132485917705534,18.156448299114242,18.18041120689481,18.204374640229812,18.228338600834167,18.252303094605693,18.276268134379674,18.300233744526242,18.324199968625994,18.348166882287785,18.372134614560903,18.396103383714575,18.420073557044894,18.44404575087625,18.468020997825885,18.49200102666555,18.515988730731426,18.539988952170972,18.564009795426838,18.588064827851195,18.612176767899463,18.636383668704035,18.660749289312946,18.68538049681889,18.710456479659754,18.73627781677259,18.763348959475582,18.792517019367267
16.533244010246644,16.537886927519907,16.54983374069913,16.566315850571677,16.585615044637567,16.60666425911091,16.62880062564987,16.651612350128268,16.674843642972586,16.698335651259924,16.721989748439743,16.74574471828253,16.769562576006606,16.793419758823568,16.817301654063293,16.8411992014593,16.865106784077586,16.889020919608118,16.91293944858504,16.936861031031203,16.96078483446071,16.984710340563552,17.008637225471013,17.03256528562275,17.056494391885124,17.080424461165165,17.104355438855375,17.128287287980903,17.152219982492827,17.176153503125118,17.20008783483641,17.22402296523089,17.247958883584015,17.271895580241573,17.295833046249257,17.31977127312427,17.343710252714693,17.367649977112727,17.391590438601273,17.4155316296209,17.439473542749422,17.463416170689097,17.487359506258667,17.511303542388053,17.535248272115027,17.55919368858265,17.58313978503756,17.607086554828363,17.63103399140443,17.654982088314533,17.67893083920574,17.702880237822068,17.7268302780033,17.750780953683552,17.77473225889,17.798684187741348,17.822636734446405,17.8465898933025,17.87054365869394,17.894498025090417,17.91845298704541,17.942408539194716,17.96636467625502,17.990321393022814,18.01427868437371,18.038236545262663,18.062194970725386,18.08615395588231,18.110113495946166,18.134073586236276,18.15803422220339,18.18199539947276,18.205957113917055,18.229919361779565,18.253882139880886,18.277845445965372,18.301809279280523,18.32577364154593,18.349738538572574,18.373703982969573,18.397669998668654,18.421636628488972,18.445603946788246,18.46957208062617,18.49354124517829,18.517511803014298,18.541484363354172,18.565459948317017,18.589440271470124,18.613428204689285,18.637428560895422,18.661449406825568,18.68550426549774,18.709615812611,18.733822082439836,18.758186890873574,18.782817348567434,18.807893301082036,18.83371684701096,18.86079568875684,18.889983574617077
16.63276334524083,16.63741960088811,16.649392196729117,16.665901143521996,16.685223684647998,16.706291504429576,16.728441933123747,16.751263906732017,16.774502466131686,16.7979995082218,16.82165701736833,16.845414246849348,16.869233559382508,16.893091642737645,16.916974061506128,16.9408718790744,16.96477956387593,16.98869369211192,17.0126121442498,17.03653360753606,17.060457268090477,17.084382620406487,17.108309349533457,17.13223725823704,17.15616622198314,17.180096161127423,17.204027023740256,17.227958775003525,17.251891390666827,17.275824853010135,17.29975914835358,17.32369426552182,17.347630194897214,17.371566927835968,17.39550445630818,17.419442772675627,17.443381869554667,17.467321739731304,17.491262376108686,17.515203771674237,17.539145919479292,17.56308881262603,17.587032444259332,17.610976807561343,17.634921895747986,17.658867702066555,17.682814219794075,17.706761442236118,17.73070936272598,17.754657974624067,17.778607271317423,17.802557246219493,17.826507892769865,17.85045920443425,17.874411174704395,17.898363797098263,17.922317065160097,17.946270972460795,17.97022551259812,17.99418067919729,18.018136465911393,18.0420928664223,18.066049874441465,18.090007483711414,18.113965688007436,18.137924481140484,18.16188385696114,18.185843809366187,18.209804332308742,18.233765419814947,18.257727066011014,18.281689265167955,18.305652011775617,18.32961530066561,18.35357912721612,18.377543487693305,18.401508379821323,18.42547380373453,18.449439763569277,18.473406270126127,18.497373345324256,18.521341029657446,18.545309394678846,18.569278563913517,18.593248747899903,18.6172203029256,18.64119382951193,18.665170337601154,18.689151523715136,18.71314023613793,18.73714125593588,18.7611626086912,18.785217768319193,18.809329360933383,18.833535392001718,18.857899719764628,18.882529677691068,18.907605739821754,18.93343148742697,18.96051783214963,18.98972512579445
16.734509924440765,16.73917986540841,16.751179184674342,16.76771613595641,16.787063259264926,16.80815092561364,16.830316645690697,16.85315008455707,16.8763971177162,16.89990039640842,16.923562519107247,16.947323210173753,16.971145180011465,16.995005366099797,17.018889508736507,17.042788792956447,17.066697770290947,17.090613073042167,17.11453261914063,17.138455120577127,17.162379779619986,17.186306101150226,17.210233776772583,17.23416261327669,17.25809248849213,17.282023324057498,17.305955068629135,17.329887687530842,17.353821156376203,17.37775545714003,17.40169057573928,17.425626500543853,17.449563221460107,17.473500729366876,17.497439015768528,17.521378072581395,17.545317892002387,17.56925846642794,17.59319978840411,17.61714185059561,17.641084645766608,17.66502816676868,17.68897240653322,17.712917358066488,17.73686301444641,17.760809368820315,17.784756414403404,17.80870414447748,17.832652552390073,17.85660163155354,17.88055137544446,17.904501777602864,17.928452831631756,17.952404531196418,17.97635687002392,18.000309841902546,18.024263440681285,18.04821766026931,18.072172494635517,18.096127937808095,18.120083983874125,18.144040626979358,18.167997861328075,18.19195568118334,18.21591408086759,18.239873054764168,18.263832597319997,18.28779270305065,18.311753366548803,18.33571458249914,18.35967634570308,18.383638651120943,18.407601493942288,18.431564869704346,18.455528774489938,18.479493205259494,18.503458160406584,18.52742364068881,18.5513896507868,18.57535620191676,18.59932331620884,18.623291034047732,18.64725942638294,18.67122861538005,18.69519880907535,18.719170359548386,18.74314386060392,18.767120311850775,18.79110139439896,18.815089934257777,18.839090681482308,18.863111620646556,18.887166175713883,18.911276921004852,18.935481829266028,18.959844795357576,18.984473368704766,19.009548646597406,19.035375696888483,19.062468671340117,19.091694622493094
16.838481864403644,16.843165678614895,16.85519201111376,16.871757172161338,16.891128951953856,16.912236417365193,16.934417285742605,16.957261978372713,16.98051722787867,17.004026456631493,17.027692889005383,17.05145672840984,17.075281038181593,17.099143008924578,17.123028558870683,17.146928996187672,17.17083895653796,17.19475512909219,17.218675469859537,17.242598716106162,17.26652408673375,17.290451097470225,17.314379446919805,17.338308946329374,17.362239476315867,17.386170960214578,17.410103347670603,17.434036604540132,17.45797070667767,17.481905636115016,17.50584137871237,17.529777922714562,17.553715257864248,17.577653374857032,17.60159226500703,17.6255319200414,17.649472331974238,17.673413493029027,17.697355395590975,17.721298032177597,17.745241395420486,17.769185478053963,17.793130272907856,17.817075772902896,17.841021971047557,17.864968860435944,17.88891643424613,17.912864685738914,17.93681360825669,17.96076319522245,17.984713440138872,18.008664336587337,18.03261587822706,18.05656805879408,18.08052087210039,18.10447431203288,18.128428372552438,18.152383047692847,18.17633833155991,18.20029421833034,18.224250702250895,18.248207777637457,18.272165438874325,18.296123680413714,18.32008249677574,18.34404188254908,18.36800183239297,18.391962341041218,18.41592340330981,18.4398850141104,18.463847168473677,18.487809861589366,18.511773088873962,18.535736846085,18.55970112951333,18.583665936306137,18.60763126500919,18.631597116476975,18.65556349539997,18.679530412868043,18.70349789067362,18.727465968537082,18.75143471624247,18.77540425402622,18.79937478684249,18.823346661967197,18.847320465868748,18.871297187164114,18.895278490833192,18.919267179803036,18.943267972186298,18.967288810466098,18.991343067433608,19.015453264398772,19.039657340630402,19.064019228502183,19.088646698716467,19.11372148766141,19.139550189038438,19.166650283878777,19.19589571774418
16.944664491918648,16.949362271951188,16.961415860939873,16.978009410426225,16.99740589981088,17.01853309377222,17.04072893904371,17.063584638696696,17.086847804328652,17.11036264609417,17.13403302619363,17.15779963533288,17.181625895401083,17.205489253969663,17.229375809897803,17.25327699646143,17.277187534995388,17.301104172825664,17.32502490518154,17.348948495664168,17.37287418082152,17.396801488212557,17.4207301244041,17.444659906044826,17.468590717464146,17.49252248459774,17.51645515895896,17.54038870778907,17.564323108006537,17.58825834249131,17.612194397803666,17.63613126278416,17.660068927694482,17.68400738369035,17.707946622498024,17.731886636215833,17.755827417192187,17.779768957950644,17.803711251143636,17.82765428952397,17.851598065926986,17.87554257325945,17.899487804492452,17.923433752656816,17.94738041084007,17.971327772184345,17.99527582988485,18.019224577188808,18.04317400739448,18.067124113850547,18.09107488995539,18.11502632915664,18.13897842495062,18.162931170882,18.18688456054331,18.2108385875747,18.23479324566351,18.258748528544128,18.28270442999763,18.30666094385176,18.330618063980705,18.354575784305265,18.37853409879295,18.40249300145856,18.426452486365086,18.450412547625433,18.47437317940536,18.498334375928465,18.522296131484648,18.54625844044427,18.57022129728198,18.59418469661666,18.61814863327838,18.642113102420748,18.666078099709356,18.69004362163802,18.714009666059653,18.737976233077685,18.761943326543474,18.785910956572383,18.809879143773063,18.833847926358587,18.85781737210729,18.881787598487083,18.90575880652622,18.929731337838696,18.953705770664566,18.977683081670467,19.00166491862596,19.025654060084786,19.04965519057498,19.073676208283526,19.097730431754204,19.121840324927387,19.146043787455064,19.170404780856888,19.195031286493116,19.220105668313707,19.24593603820787,19.273043215461456,19.30230809441673
17.053027274319213,17.05773926455023,17.069820727445254,17.086443368671365,17.105865249286154,17.12701280299567,17.149224207988162,17.172091460485696,17.195363062912104,17.218884022588767,17.24255884598813,17.26632871505702,17.290157412328096,17.314022643167895,17.337910687082342,17.36181310198731,17.38572469414657,17.409642268156443,17.433563857520525,17.45748825121476,17.481414702484223,17.505342749793712,17.52927210677748,17.553202594623194,17.577134100543024,17.601066552276336,17.624999902441008,17.648934118932427,17.67286917903516,17.69680506581275,17.72074176589492,17.744679268121747,17.768617562713047,17.792556640759585,17.816496493911508,17.84043711418735,17.864378493857075,17.888320625370195,17.912263501311685,17.936207114374664,17.960151457343564,17.98409652308348,18.008042304533554,18.03198879470254,18.05593598666601,18.07988387356426,18.103832448600947,18.127781705041883,18.15173163621424,18.17568223550567,18.19963349636373,18.22358541229515,18.247537976865374,18.271491183697876,18.295445026473736,18.31939949893106,18.343354594864547,18.36731030812495,18.39126663261876,18.41522356230766,18.439181091208354,18.463139213392207,18.487097922985257,18.511057214168343,18.535017081177752,18.558977518306513,18.582938519906918,18.606900080394954,18.630862194258167,18.654824856068906,18.67878806050708,18.702751802398367,18.726716076778906,18.750680879003944,18.7746462049309,18.79861205122709,18.822578415887538,18.846545299105927,18.870512704740296,18.894480642779744,18.91844913349749,18.942418214444718,18.966387952232562,18.990358462385917,19.01432994281056,19.038302730225006,19.06227739534704,19.08625490350037,19.110236885692604,19.134226096298264,19.158227186055782,19.182248008037437,19.20630182480743,19.230411039903082,19.25461350860078,19.278973214801418,19.303598342097143,19.32867187401416,19.35450343944075,19.38161721741053,19.410901131471746
17.163554992595657,17.16828138213449,17.180391101868366,17.197043194663802,17.21649073884254,17.237658834684495,17.25988590989459,17.282764774950564,17.30604484095907,17.32957192559867,17.353251188593728,17.377024308885126,17.40085543314188,17.424722526530957,17.44861205028003,17.472515687465435,17.496428329487127,17.52034683825341,17.544269285504946,17.568194485524362,17.5921217081799,17.616050502773895,17.63998058994973,17.663911795386163,17.6878440091395,17.71177716072173,17.735711203829872,17.759646106992307,17.783581847841482,17.807518409608253,17.83145577897682,17.855393944772512,17.87933289715936,17.903272627149477,17.927213126303037,17.95115438654491,17.975096400052454,17.999039159186783,18.022982656450694,18.046926884462668,18.070871835940878,18.094817503693115,18.1187638806105,18.142710959663283,18.166658733898156,18.19060719643626,18.214556340471766,18.238506159270706,18.262456646170026,18.286407794576693,18.310359597966904,18.33431204988533,18.358265143944323,18.38221887382319,18.406173233267452,18.43012821608808,18.45408381616078,18.478040027425234,18.501996843884392,18.52595425960376,18.549912268710763,18.573870865394156,18.597830043903585,18.621789798549415,18.645750123702882,18.66971101379701,18.693672463328543,18.717634466861913,18.74159701903625,18.765560114577905,18.789523748321837,18.813487915248356,18.837452610545213,18.86141782971285,18.885383568741833,18.90934982441228,18.93331659479852,18.95728388011971,18.981251684173756,19.00522001675466,19.029188897729078,19.053158363912402,19.077128480670567,19.101099361501173,19.12507120109236,19.149044331153522,19.17301931473419,19.19699710561465,19.22097931774889,19.244968680893706,19.268969811329825,19.292990516005258,19.31704400001937,19.34115260443092,19.365354137498013,19.389712602750294,19.414336384711486,19.439409090756865,19.46524188633436,19.49236236657468,19.521665623062972
17.276233196638344,17.280974108528802,17.293112376637826,17.30979416950624,17.329267523290497,17.350456206176585,17.372698916099434,17.395589300684552,17.418877698781497,17.442410752458084,17.46609428430426,17.489870476532236,17.51370384391314,17.537572613873632,17.561463430888722,17.585368104169987,17.609281610919805,17.633200870863195,17.657123994405328,17.681049821531595,17.704977639120507,17.728907007699657,17.752837655312003,17.776769412519588,17.80070217261401,17.82463586726704,17.848570451634988,17.87250589524981,17.896442176450606,17.920379278980718,17.944317189908766,17.968255898358937,17.992195394735642,18.016135670250154,18.04007671663156,18.064018525950292,18.08796109051019,18.11190440278257,18.13584845536571,18.159793240959957,18.183738752352287,18.2076849824067,18.231631924058053,18.25557957030814,18.27952791422301,18.303476948931127,18.32742666762202,18.351377063545232,18.375328130009454,18.399279860381785,18.423232248087096,18.447185286607386,18.471138969481252,18.495093290303313,18.519048242723716,18.54300382044764,18.56696001723481,18.590916826899043,18.61487424330784,18.638832260382,18.662790872095297,18.686750072474258,18.71070985559806,18.734670215598737,18.75863114666165,18.782592643026785,18.806554698990986,18.83051730891216,18.854480467216447,18.878444168410724,18.902408407103696,18.926373178041864,18.950338476170163,18.974304296734527,18.998270635454837,19.02223748881689,19.04620485456492,19.070172732532875,19.094141126047425,19.118110044296927,19.142079506332017,19.1660495478243,19.190020232487505,19.213991671384118,19.23796405557184,19.26193771132481,19.28591319356968,19.309891444033433,19.33387405900677,19.35786374284669,19.381865076308724,19.405885818695154,19.429939115429562,19.45404724189564,19.478247954855092,19.50260527160462,19.527227770948173,19.552299679123742,19.57813370169033,19.605260878653343,19.63458356124704
17.39104044514881,17.395796062277665,17.407963326524037,17.424675288131883,17.444174861228277,17.465384469911868,17.487643094090767,17.510545235213403,17.533842174501757,17.55738138919601,17.58106937190903,17.6048488124812,17.628684596195868,17.652555213891713,17.676447493680936,17.700353370867344,17.724267908187464,17.748188082812767,17.772112043410154,17.796038655268436,17.81996722189726,17.843897314696424,17.867828668782234,17.891761119298636,17.91569456249347,17.939628931938874,17.963564184008575,17.987500289011972,18.011437225783187,18.03537497838004,18.059313534070647,18.083252882105885,18.107193012970953,18.13113391792932,18.155075588744598,18.17901801751113,18.20296119655043,18.226905118348153,18.25084977551528,18.274795160764466,18.298741266895245,18.32268808678493,18.346635613382716,18.370583839705986,18.394532758837713,18.41848236392474,18.44243264817643,18.466383604863722,18.4903352273182,18.514287508931485,18.538240443154443,18.562194023496723,18.586148243526058,18.610103096867824,18.63405857720443,18.658014678274885,18.681971393874218,18.7059287178531,18.729886644117325,18.75384516662745,18.777804279398403,18.801763976499263,18.825724252053067,18.849685100236965,18.873646515282644,18.897608491477474,18.92157102316661,18.94553410475695,18.96949773072401,18.993461895623852,19.017426594113445,19.04139182098528,19.06535757122612,19.089323840116275,19.113290623397685,19.137257917557783,19.161225720309528,19.18519403140267,19.209162853995497,19.233132196974548,19.257102078878656,19.281072534538783,19.30504362631668,19.329015463133416,19.35298823269755,19.37696225610627,19.400938080380868,19.424916635341308,19.44889949964019,19.472889352058186,19.496890737321937,19.520911366068578,19.544964322244248,19.569071812628962,19.593271538062915,19.617627523478838,19.642248534570424,19.667319410062262,19.693154396964427,19.720288005876295,19.74962993585467
17.507958594233532,17.5127290907956,17.524925727737074,17.541668219874893,17.56119429571976,17.582425032849514,17.604699710329502,17.62761370310841,17.65091925101964,17.674464678106318,17.69815715461315,17.721939882627037,17.745778120534695,17.769650623895295,17.793544405004123,17.81745152538,17.841367133202052,17.86528826290425,17.889213101205154,17.91314053849398,17.937069894729586,17.96100075202701,17.984932852442792,18.008866035590273,18.03280020057816,18.05673528279715,18.080671239767515,18.104608042513696,18.128545670309425,18.152484107477186,18.176423341439634,18.200363361533487,18.224304158287772,18.248245722984603,18.272188047392028,18.296131123601345,18.320074943928134,18.344019500851797,18.367964786978725,18.391910795019616,18.415857517775507,18.439804948129073,18.46375307903904,18.487701903536657,18.511651414723183,18.535601605768246,18.55955246990849,18.583504000446602,18.607456190750394,18.63140903425208,18.655362524447497,18.679316654895498,18.703271419217227,18.727226811095523,18.751182824274263,18.77513945255774,18.799096689810053,18.823054529954494,18.84701296697296,18.870971994905414,18.894931607849337,18.918891799959322,18.94285256544673,18.96681389857962,18.990775793682964,19.014738245139533,19.038701247391728,19.06266479494514,19.086628882374992,19.11059350433733,19.134558655588567,19.158524331018583,19.18249052570747,19.20645723502145,19.230424454775903,19.25439218151118,19.278360412959966,19.30232914883861,19.32629839218744,19.350268151641252,19.374238445276504,19.398209307131886,19.422180798263327,19.446153025492293,19.47012617321136,19.494100557357452,19.51807671703256,19.542055570080937,19.56603867735282,19.59002869172734,19.614030121314006,19.63805062708354,19.662103229885332,19.6862100654147,19.71040877504314,19.73476338679149,19.759382848600637,19.784452609999228,19.81028846876957,19.83742844543281,19.866789698417108
17.626970494440034,17.6317560098235,17.643982331642164,17.660755633228355,17.680308401381616,17.7015603694381,17.72385113560846,17.746776969615226,17.77009108702596,17.793642670808637,17.817339576742874,17.84112552398798,17.864966146805177,17.888840466963053,17.912735681678104,17.936643979012928,17.96056059271631,17.984482614528233,18.008408269242196,18.03233647238059,18.05626656040535,18.08019812622334,18.104130918927844,18.12806478271365,18.15199961967305,18.17593536714467,18.199871983927533,18.223809441893597,18.247747720886522,18.2716868056201,18.295626683793078,18.31956734494363,18.34350877975343,18.367450979624888,18.391393936424343,18.415337642325984,18.439282089716986,18.463227271139683,18.48717317925631,18.511119806827384,18.53506714669833,18.559015191791197,18.582963935099308,18.606913369683895,18.630863488671675,18.654814285253337,18.678765752682175,18.702717884273255,18.72667067340246,18.750624113505886,18.774578198079098,18.79853292067658,18.822488274911088,18.84644425445312,18.87040085303035,18.894358064427088,18.918315882483732,18.942274301096333,18.966233314215998,18.990192915848578,19.014153100054102,19.038113860946616,19.06207519269383,19.08603708951725,19.109999545692407,19.133962555549914,19.157926113477206,19.181890213922234,19.20585485139961,19.229820020501688,19.25378571591734,19.277751932464255,19.301718665143753,19.32568590923407,19.349653660448475,19.373621915203678,19.39759067107489,19.421559927567735,19.44552968742765,19.469499958861576,19.4934707593087,19.517442121841828,19.54141410603835,19.565386816446736,19.589360433966,19.613335269183867,19.637311853069313,19.66129109122828,19.685274526356274,19.709264784920425,19.733266337636937,19.757286794604376,19.781339111707975,19.805445350732352,19.829643089492674,19.853996353633594,19.87861426708943,19.903682885649616,19.929519562138736,19.956665857525905,19.98604648608807